ply
format ascii 1.0
comment UTC time at start 1403715271.705180
comment Local time at start 
bag file: 
fixed frame: world
moving frame: imu0
element vertex 653
property float x
property float y
property float z
property float roll
property float pitch
property float yaw
property float scalar_confidence_metric
end_header
1.285530 0.498632 1.177670 1.106079 2.348780 1.948524 81.455207 1.000000
1.286420 0.501445 1.179540 1.105192 2.350682 1.940032 81.461551 1.000000
1.287790 0.504045 1.180490 1.108839 2.351832 1.953513 81.471596 1.000000
1.288710 0.506566 1.181720 1.101750 2.348536 1.945804 81.481572 1.000000
1.289790 0.509573 1.182680 1.106318 2.351223 1.944338 81.491584 1.000000
1.290920 0.511906 1.184180 1.101175 2.352174 1.942439 81.501541 1.000000
1.291890 0.513961 1.186040 1.102603 2.350229 1.941891 81.511622 1.000000
1.292920 0.517180 1.187920 1.108236 2.353205 1.941134 81.521534 1.000000
1.294140 0.519722 1.189520 1.108786 2.352642 1.941300 81.531536 1.000000
1.295430 0.522148 1.192000 1.108850 2.354522 1.933827 81.541620 1.000000
1.295750 0.524344 1.193660 1.102443 2.354597 1.939525 81.551735 1.000000
1.297210 0.526912 1.196470 1.102144 2.354555 1.936793 81.561597 1.000000
1.298230 0.529081 1.198300 1.104918 2.355936 1.945099 81.571563 1.000000
1.298780 0.531286 1.201740 1.104585 2.355090 1.931777 81.581549 1.000000
1.299270 0.533316 1.203770 1.099030 2.354818 1.938070 81.591530 1.000000
1.300800 0.535387 1.206330 1.097255 2.355474 1.941227 81.601601 1.000000
1.301670 0.537532 1.208910 1.100073 2.356263 1.938844 81.611647 1.000000
1.301860 0.540318 1.212020 1.102924 2.357093 1.931823 81.621528 1.000000
1.303240 0.542415 1.214330 1.099212 2.358279 1.945552 81.631601 1.000000
1.303900 0.545183 1.217090 1.102956 2.362636 1.938193 81.641565 1.000000
1.304620 0.546703 1.220690 1.099546 2.359371 1.935786 81.651537 1.000000
1.305950 0.548561 1.223750 1.097809 2.358307 1.931767 81.661639 1.000000
1.305820 0.550908 1.225530 1.098705 2.362448 1.942683 81.671680 1.000000
1.307240 0.552711 1.228260 1.100093 2.362632 1.939595 81.681551 1.000000
1.308060 0.554692 1.231060 1.099862 2.363016 1.933579 81.691511 1.000000
1.308270 0.557152 1.233620 1.099859 2.364376 1.932081 81.701642 1.000000
1.308720 0.558851 1.235490 1.092651 2.363140 1.937689 81.711675 1.000000
1.309170 0.561155 1.238090 1.095914 2.365495 1.931963 81.721550 1.000000
1.310220 0.563560 1.240370 1.100183 2.366661 1.932713 81.731620 1.000000
1.310840 0.565335 1.242730 1.095031 2.365698 1.931674 81.741631 1.000000
1.311320 0.567360 1.244290 1.099717 2.366369 1.931024 81.751580 1.000000
1.312220 0.569140 1.245510 1.097442 2.368057 1.940594 81.761620 1.000000
1.312240 0.571068 1.246640 1.104272 2.370220 1.935723 81.771628 1.000000
1.312700 0.573145 1.248300 1.100815 2.369328 1.936629 81.781489 1.000000
1.313740 0.575171 1.249970 1.099004 2.370725 1.935752 81.791526 1.000000
1.314630 0.576498 1.250800 1.093958 2.370229 1.938973 81.801599 1.000000
1.314670 0.578714 1.252190 1.097615 2.371702 1.931315 81.811576 1.000000
1.315090 0.580393 1.253000 1.098539 2.371488 1.929275 81.821558 1.000000
1.315870 0.582450 1.254210 1.094026 2.371493 1.923889 81.831452 1.000000
1.316790 0.584581 1.255000 1.098505 2.373547 1.919196 81.841441 1.000000
1.317890 0.586051 1.256000 1.094688 2.368964 1.914372 81.851740 1.000000
1.317730 0.587759 1.255140 1.094628 2.371324 1.921509 81.861622 1.000000
1.318340 0.589779 1.255480 1.096120 2.373364 1.923367 81.871618 1.000000
1.319060 0.591650 1.255630 1.098540 2.371704 1.917297 81.881621 1.000000
1.319210 0.593540 1.255230 1.096353 2.375652 1.926840 81.891635 1.000000
1.319710 0.595329 1.255260 1.095519 2.375774 1.922002 81.901644 1.000000
1.319660 0.597352 1.254440 1.099721 2.382124 1.932097 81.911636 1.000000
1.319730 0.598778 1.254020 1.098231 2.378456 1.924558 81.921463 1.000000
1.320500 0.600897 1.253500 1.097850 2.377232 1.922287 81.931670 1.000000
1.321110 0.602822 1.253010 1.099178 2.376865 1.919317 81.941658 1.000000
1.321310 0.604682 1.252430 1.098194 2.377632 1.913508 81.951621 1.000000
1.321870 0.606546 1.251690 1.095840 2.376907 1.914888 81.961538 1.000000
1.322360 0.607948 1.249830 1.093809 2.378758 1.922051 81.971563 1.000000
1.322600 0.609999 1.248700 1.099193 2.380566 1.920916 81.981535 1.000000
1.323150 0.611832 1.247470 1.098115 2.379694 1.915786 81.991506 1.000000
1.323250 0.613184 1.246450 1.092944 2.377726 1.910921 82.001641 1.000000
1.323460 0.614805 1.245030 1.093687 2.379075 1.913718 82.011644 1.000000
1.323900 0.616656 1.243650 1.096266 2.380243 1.914072 82.021538 1.000000
1.324020 0.618171 1.241560 1.097169 2.380930 1.918842 82.031644 1.000000
1.324320 0.620214 1.240900 1.096901 2.379749 1.915608 82.041711 1.000000
1.324360 0.622337 1.239120 1.100502 2.382601 1.915359 82.051540 1.000000
1.325010 0.624253 1.239060 1.100269 2.382422 1.903373 82.061605 1.000000
1.325090 0.625568 1.237400 1.103582 2.378894 1.904576 82.071676 1.000000
1.325130 0.627382 1.235180 1.101038 2.381254 1.907518 82.081580 1.000000
1.325260 0.629017 1.233420 1.101548 2.384136 1.907488 82.091499 1.000000
1.325430 0.630835 1.232140 1.102476 2.381925 1.905753 82.101730 1.000000
1.325450 0.632420 1.230840 1.102085 2.381635 1.905539 82.111696 1.000000
1.325770 0.633641 1.229130 1.101170 2.380587 1.901469 82.121557 1.000000
1.325190 0.635488 1.227090 1.099782 2.383370 1.903674 82.131533 1.000000
1.325310 0.637271 1.225010 1.103641 2.385300 1.909240 82.141435 1.000000
1.325780 0.639516 1.223400 1.105956 2.385494 1.911426 82.151615 1.000000
1.325620 0.640464 1.221920 1.102873 2.383572 1.903713 82.161540 1.000000
1.325610 0.642331 1.220010 1.101804 2.385164 1.903443 82.171652 1.000000
1.325640 0.644275 1.218770 1.105708 2.384728 1.900922 82.181577 1.000000
1.325790 0.646123 1.217170 1.106976 2.384935 1.900977 82.191476 1.000000
1.325800 0.648014 1.215420 1.108244 2.386587 1.899188 82.201645 1.000000
1.325620 0.649748 1.213850 1.106306 2.388152 1.896643 82.211534 1.000000
1.325400 0.651535 1.212140 1.110801 2.389828 1.902177 82.221563 1.000000
1.325430 0.653123 1.211200 1.110182 2.384473 1.884955 82.231677 1.000000
1.325430 0.654547 1.208510 1.107716 2.387406 1.899834 82.241564 1.000000
1.325120 0.656573 1.206890 1.103431 2.389823 1.899735 82.251542 1.000000
1.324580 0.658435 1.204690 1.107990 2.390343 1.903348 82.261708 1.000000
1.324020 0.659676 1.202960 1.106946 2.390008 1.897798 82.271636 1.000000
1.323370 0.661463 1.200410 1.105295 2.392730 1.900792 82.281581 1.000000
1.323680 0.663153 1.199370 1.105384 2.390451 1.897264 82.291463 1.000000
1.323100 0.664406 1.197150 1.105113 2.390585 1.900491 82.301582 1.000000
1.322950 0.666425 1.195150 1.106712 2.392173 1.900223 82.311697 1.000000
1.322500 0.668226 1.193240 1.102098 2.394135 1.898862 82.321632 1.000000
1.321910 0.669787 1.191010 1.111142 2.396299 1.908592 82.331655 1.000000
1.321230 0.670968 1.189080 1.104016 2.392803 1.898274 82.341543 1.000000
1.320700 0.673008 1.186520 1.103329 2.397646 1.909944 82.351597 1.000000
1.320640 0.674832 1.185110 1.101776 2.396917 1.907758 82.361551 1.000000
1.320160 0.676557 1.182590 1.105017 2.399584 1.912627 82.371567 1.000000
1.319930 0.677866 1.181300 1.102517 2.399878 1.911952 82.381618 1.000000
1.319520 0.679785 1.179190 1.100047 2.401505 1.911700 82.391546 1.000000
1.319040 0.681701 1.177410 1.098864 2.402054 1.910872 82.401636 1.000000
1.318400 0.683366 1.175090 1.098383 2.405904 1.919952 82.411619 1.000000
1.317440 0.684882 1.172530 1.098569 2.407367 1.931299 82.421547 1.000000
1.317550 0.686342 1.170710 1.097131 2.408490 1.927182 82.431659 1.000000
1.316520 0.688182 1.169110 1.096511 2.408556 1.924694 82.441580 1.000000
1.315890 0.689379 1.166190 1.100576 2.412174 1.937001 82.451596 1.000000
1.315790 0.690967 1.164390 1.096848 2.413789 1.940907 82.461620 1.000000
1.315300 0.692907 1.162390 1.103437 2.415618 1.942083 82.471645 1.000000
1.314900 0.694394 1.160580 1.099259 2.415518 1.942221 82.481598 1.000000
1.314590 0.695681 1.158450 1.096777 2.417203 1.947682 82.491534 1.000000
1.314010 0.697028 1.156520 1.094103 2.417922 1.948246 82.501758 1.000000
1.313540 0.698994 1.154420 1.093532 2.419669 1.948049 82.511794 1.000000
1.313330 0.700353 1.152710 1.094060 2.418534 1.950509 82.521783 1.000000
1.312790 0.701459 1.150450 1.096159 2.420802 1.952918 82.531687 1.000000
1.312710 0.702946 1.148650 1.095305 2.422574 1.952825 82.541591 1.000000
1.312410 0.704748 1.146390 1.096417 2.424857 1.955826 82.551548 1.000000
1.312330 0.706180 1.144420 1.094999 2.424031 1.960562 82.561738 1.000000
1.312170 0.707613 1.142460 1.098465 2.428168 1.961303 82.571568 1.000000
1.312290 0.707913 1.140780 1.089062 2.426433 1.960587 82.581566 1.000000
1.312020 0.708981 1.139080 1.088957 2.423138 1.950361 82.591636 1.000000
1.311790 0.710627 1.137460 1.090989 2.424342 1.955877 82.601539 1.000000
1.311880 0.712023 1.135530 1.092171 2.426159 1.954357 82.611625 1.000000
1.311980 0.713041 1.133870 1.090845 2.426465 1.953993 82.621632 1.000000
1.312220 0.714060 1.131710 1.087761 2.426693 1.955864 82.631630 1.000000
1.311780 0.715678 1.129830 1.089786 2.427840 1.961793 82.641608 1.000000
1.311960 0.716369 1.128320 1.087707 2.425892 1.956619 82.651628 1.000000
1.312190 0.717274 1.127020 1.083964 2.424640 1.951601 82.661707 1.000000
1.312430 0.718304 1.125300 1.082701 2.423944 1.947973 82.671560 1.000000
1.312390 0.719824 1.122930 1.081523 2.426163 1.952968 82.681521 1.000000
1.312400 0.720589 1.121990 1.084431 2.423950 1.948510 82.691631 1.000000
1.312990 0.721217 1.119870 1.075533 2.424157 1.953077 82.701693 1.000000
1.313170 0.722132 1.118600 1.076146 2.422999 1.949019 82.711550 1.000000
1.313460 0.723615 1.115800 1.081751 2.428470 1.960210 82.721675 1.000000
1.314070 0.724027 1.115150 1.077064 2.422774 1.944199 82.731563 1.000000
1.314160 0.725179 1.113440 1.078188 2.421115 1.945251 82.741535 1.000000
1.314760 0.726060 1.112010 1.076726 2.423714 1.941962 82.751596 1.000000
1.315720 0.727093 1.111220 1.074689 2.420678 1.934040 82.761702 1.000000
1.315940 0.727979 1.109310 1.070581 2.421239 1.935754 82.771613 1.000000
1.316090 0.729137 1.107410 1.074910 2.421545 1.938757 82.781547 1.000000
1.316450 0.730516 1.106160 1.076633 2.420894 1.938046 82.791674 1.000000
1.316940 0.730872 1.104340 1.071387 2.421031 1.938183 82.801645 1.000000
1.317740 0.731730 1.102320 1.070832 2.422368 1.937807 82.811592 1.000000
1.317930 0.732883 1.101260 1.073167 2.420928 1.933158 82.821727 1.000000
1.318730 0.733784 1.100100 1.078880 2.419652 1.931840 82.831608 1.000000
1.319300 0.735067 1.098570 1.073228 2.419263 1.932664 82.841650 1.000000
1.320020 0.735959 1.097160 1.071369 2.418967 1.927866 82.851676 1.000000
1.320530 0.737244 1.095250 1.071729 2.422496 1.930861 82.861495 1.000000
1.321270 0.737754 1.093240 1.067814 2.422636 1.937164 82.871490 1.000000
1.321870 0.738707 1.092990 1.071907 2.421179 1.931167 82.881559 1.000000
1.322090 0.739991 1.092140 1.071103 2.419873 1.927496 82.891787 1.000000
1.323010 0.741055 1.091600 1.073238 2.417493 1.928116 82.901591 1.000000
1.323720 0.741841 1.090000 1.071604 2.417866 1.928625 82.911571 1.000000
1.324870 0.743199 1.089590 1.073106 2.419139 1.925562 82.921649 1.000000
1.325510 0.744297 1.088230 1.075229 2.421077 1.930703 82.931777 1.000000
1.326590 0.745146 1.088010 1.073764 2.420125 1.924162 82.941470 1.000000
1.327440 0.746679 1.088420 1.074009 2.416679 1.919420 82.951691 1.000000
1.327540 0.747771 1.087380 1.075172 2.417870 1.923920 82.961733 1.000000
1.328400 0.748649 1.086490 1.075500 2.417150 1.930713 82.971742 1.000000
1.329080 0.749654 1.085970 1.072762 2.418055 1.929139 82.981705 1.000000
1.330290 0.750512 1.085990 1.074578 2.418396 1.931619 82.991650 1.000000
1.330940 0.751949 1.086210 1.072898 2.418493 1.931924 83.001556 1.000000
1.331410 0.753690 1.086290 1.075819 2.420768 1.931230 83.011806 1.000000
1.332600 0.754035 1.086600 1.071986 2.416918 1.930615 83.021737 1.000000
1.333500 0.755089 1.086910 1.073915 2.418741 1.933717 83.031686 1.000000
1.334480 0.756630 1.087180 1.077980 2.420904 1.931737 83.041626 1.000000
1.335520 0.757638 1.088390 1.075331 2.415794 1.923205 83.051628 1.000000
1.336390 0.758970 1.089190 1.076979 2.418332 1.931387 83.061533 1.000000
1.337150 0.759965 1.089590 1.075160 2.418848 1.932650 83.071566 1.000000
1.338580 0.761063 1.091540 1.075517 2.417267 1.926982 83.081582 1.000000
1.339540 0.762084 1.092480 1.075233 2.416775 1.930341 83.091606 1.000000
1.340280 0.763629 1.093620 1.075537 2.417583 1.929309 83.101615 1.000000
1.341280 0.764479 1.095070 1.075783 2.418668 1.933432 83.111602 1.000000
1.342500 0.765802 1.096630 1.077780 2.417181 1.932269 83.121464 1.000000
1.343050 0.767036 1.097250 1.073257 2.420922 1.939784 83.131525 1.000000
1.344490 0.768550 1.099850 1.073099 2.420875 1.933317 83.141565 1.000000
1.346100 0.769335 1.102070 1.071181 2.417880 1.926791 83.151569 1.000000
1.347380 0.770460 1.104690 1.072394 2.415927 1.927670 83.161791 1.000000
1.348000 0.772059 1.106120 1.075447 2.418238 1.934287 83.171614 1.000000
1.348790 0.773117 1.107880 1.077426 2.416771 1.938671 83.181560 1.000000
1.350140 0.774306 1.110780 1.077588 2.417140 1.935695 83.191532 1.000000
1.351360 0.775449 1.113590 1.074822 2.417748 1.929954 83.201659 1.000000
1.352420 0.776624 1.115910 1.075728 2.420127 1.935567 83.211586 1.000000
1.353710 0.777980 1.118420 1.079521 2.421192 1.940149 83.221574 1.000000
1.355040 0.779766 1.121440 1.083396 2.420403 1.938737 83.231612 1.000000
1.355960 0.780548 1.124400 1.081464 2.419259 1.932441 83.241672 1.000000
1.357350 0.781401 1.127010 1.079662 2.419760 1.941270 83.251725 1.000000
1.358490 0.783144 1.129770 1.081525 2.424233 1.947844 83.261748 1.000000
1.359910 0.784166 1.133390 1.077832 2.420416 1.931268 83.271631 1.000000
1.361190 0.785794 1.136290 1.083036 2.422773 1.939164 83.281653 1.000000
1.362620 0.786848 1.139430 1.087477 2.423205 1.940499 83.291698 1.000000
1.363780 0.788087 1.142140 1.087421 2.425157 1.941426 83.301590 1.000000
1.365210 0.789125 1.145810 1.086771 2.423747 1.936640 83.311577 1.000000
1.366540 0.790594 1.148750 1.091105 2.422504 1.940266 83.321936 1.000000
1.368190 0.791455 1.152060 1.090463 2.421818 1.937098 83.331624 1.000000
1.369430 0.792600 1.154910 1.085394 2.423422 1.935393 83.341588 1.000000
1.370650 0.794091 1.157330 1.088236 2.425438 1.941275 83.351825 1.000000
1.372180 0.795138 1.160740 1.091718 2.423561 1.937072 83.361656 1.000000
1.373640 0.796254 1.163810 1.092467 2.423566 1.936065 83.371588 1.000000
1.374840 0.796932 1.166080 1.091644 2.425984 1.938454 83.381643 1.000000
1.376650 0.798411 1.169600 1.089590 2.425446 1.932769 83.391791 1.000000
1.378100 0.799684 1.172320 1.090300 2.426244 1.935093 83.401596 1.000000
1.379510 0.800721 1.174590 1.094318 2.426315 1.934140 83.411683 1.000000
1.381150 0.801609 1.177770 1.092595 2.427181 1.932337 83.421605 1.000000
1.382710 0.802927 1.180380 1.090607 2.429534 1.929756 83.431630 1.000000
1.384160 0.803992 1.183180 1.091919 2.430747 1.926106 83.441596 1.000000
1.385320 0.805288 1.185450 1.097361 2.433692 1.932198 83.451764 1.000000
1.387620 0.805786 1.187990 1.094363 2.432908 1.928219 83.462360 1.000000
1.389070 0.806995 1.191240 1.092410 2.433512 1.920059 83.471587 1.000000
1.390450 0.808168 1.193500 1.095025 2.435909 1.924589 83.481677 1.000000
1.391990 0.809461 1.195260 1.095747 2.440138 1.931908 83.491719 1.000000
1.393670 0.810428 1.198110 1.092787 2.439870 1.924318 83.501622 1.000000
1.395420 0.811527 1.200980 1.090989 2.442629 1.920704 83.511745 1.000000
1.396750 0.812595 1.202960 1.094734 2.444888 1.922712 83.521794 1.000000
1.398440 0.813806 1.205380 1.095205 2.447784 1.919846 83.531623 1.000000
1.400000 0.815094 1.207800 1.096456 2.450630 1.916048 83.541591 1.000000
1.402080 0.815963 1.211190 1.098092 2.450567 1.908994 83.551669 1.000000
1.403260 0.817178 1.212530 1.101452 2.454383 1.913215 83.561740 1.000000
1.404860 0.818479 1.214740 1.099270 2.458623 1.910371 83.571571 1.000000
1.406680 0.819171 1.217320 1.098876 2.460857 1.905266 83.581669 1.000000
1.408150 0.820436 1.219350 1.099323 2.461446 1.904481 83.591641 1.000000
1.409800 0.821704 1.221780 1.100708 2.465294 1.900992 83.601741 1.000000
1.411420 0.823188 1.223620 1.101009 2.470493 1.901815 83.611603 1.000000
1.412650 0.823885 1.225230 1.104988 2.473131 1.903355 83.621674 1.000000
1.414820 0.825428 1.228240 1.106092 2.475754 1.894966 83.631596 1.000000
1.416460 0.826344 1.230280 1.101820 2.479599 1.891209 83.641584 1.000000
1.418160 0.827307 1.232270 1.103621 2.482505 1.891705 83.651660 1.000000
1.419690 0.828527 1.234490 1.106704 2.487601 1.887657 83.661640 1.000000
1.421340 0.829934 1.236500 1.106635 2.489538 1.884127 83.671535 1.000000
1.422940 0.831167 1.238480 1.112358 2.494837 1.878434 83.681638 1.000000
1.424410 0.832429 1.240670 1.108945 2.499058 1.877551 83.691646 1.000000
1.426190 0.833667 1.243140 1.114534 2.501563 1.876179 83.701652 1.000000
1.427760 0.834930 1.245010 1.114676 2.507232 1.873641 83.711697 1.000000
1.429590 0.836043 1.247310 1.116437 2.510568 1.868449 83.721622 1.000000
1.431930 0.837651 1.249480 1.120995 2.516102 1.868182 83.731599 1.000000
1.433030 0.838862 1.252050 1.124022 2.518750 1.859702 83.741573 1.000000
1.434690 0.839954 1.253180 1.124129 2.524806 1.867904 83.751587 1.000000
1.436820 0.840751 1.255890 1.124165 2.524781 1.859566 83.761616 1.000000
1.438120 0.842397 1.257920 1.128180 2.530163 1.857241 83.771572 1.000000
1.439940 0.843680 1.259810 1.131050 2.534916 1.855147 83.781596 1.000000
1.441470 0.845064 1.261410 1.131874 2.538874 1.854022 83.791650 1.000000
1.443300 0.846374 1.263900 1.130857 2.543543 1.847772 83.801619 1.000000
1.444750 0.847727 1.265800 1.135317 2.549701 1.846993 83.811629 1.000000
1.447040 0.848499 1.268210 1.141427 2.554376 1.843952 83.821638 1.000000
1.448330 0.850125 1.270380 1.143915 2.558703 1.836738 83.831561 1.000000
1.449980 0.851470 1.271920 1.144899 2.563985 1.841831 83.841582 1.000000
1.451770 0.852323 1.274330 1.143006 2.564881 1.830186 83.851630 1.000000
1.453520 0.853628 1.276060 1.148181 2.571721 1.834960 83.861556 1.000000
1.455320 0.855082 1.278060 1.150695 2.576860 1.828142 83.871534 1.000000
1.456940 0.856682 1.279720 1.148310 2.582663 1.827414 83.881525 1.000000
1.458570 0.857716 1.281290 1.152292 2.586342 1.826892 83.891407 1.000000
1.460550 0.858826 1.283600 1.151542 2.589997 1.820127 83.901552 1.000000
1.462370 0.860126 1.285100 1.155056 2.596136 1.819769 83.911745 1.000000
1.463950 0.861237 1.286590 1.156764 2.602441 1.825098 83.921755 1.000000
1.465950 0.862232 1.288800 1.157377 2.606086 1.818678 83.931606 1.000000
1.467300 0.863385 1.290210 1.156586 2.604591 1.804434 83.941544 1.000000
1.469690 0.864981 1.292510 1.161089 2.612455 1.807570 83.951752 1.000000
1.471140 0.866345 1.294050 1.164155 2.618932 1.807724 83.961630 1.000000
1.472850 0.867582 1.296090 1.166139 2.620364 1.803764 83.971836 1.000000
1.474570 0.868232 1.297500 1.166211 2.623941 1.801756 83.981693 1.000000
1.476340 0.869156 1.298800 1.165658 2.627403 1.798951 83.991606 1.000000
1.478690 0.870240 1.301270 1.167864 2.629025 1.792430 84.001611 1.000000
1.480240 0.871278 1.302420 1.168260 2.633171 1.794332 84.011640 1.000000
1.482060 0.872074 1.303950 1.168876 2.635644 1.793820 84.021699 1.000000
1.484100 0.872617 1.305090 1.166919 2.637825 1.794576 84.031489 1.000000
1.485770 0.874268 1.306860 1.169289 2.645101 1.788751 84.041487 1.000000
1.487700 0.875232 1.308820 1.167631 2.646712 1.784924 84.051540 1.000000
1.489880 0.876308 1.310310 1.167978 2.648085 1.785831 84.061590 1.000000
1.491260 0.877279 1.311930 1.172483 2.651062 1.784474 84.071580 1.000000
1.492980 0.878441 1.313690 1.170908 2.654001 1.779205 84.081707 1.000000
1.495060 0.879170 1.315340 1.171813 2.659051 1.780245 84.091621 1.000000
1.497190 0.880177 1.317100 1.170481 2.658948 1.772435 84.101605 1.000000
1.498970 0.880753 1.318760 1.171246 2.658631 1.771884 84.111691 1.000000
1.500650 0.881363 1.320140 1.171130 2.660466 1.771965 84.121588 1.000000
1.502670 0.882613 1.321810 1.169146 2.664226 1.770012 84.131600 1.000000
1.504550 0.883466 1.323350 1.172784 2.665848 1.768549 84.141608 1.000000
1.506190 0.884607 1.324300 1.168702 2.670444 1.769181 84.151722 1.000000
1.508380 0.885173 1.326370 1.173216 2.670100 1.770114 84.161662 1.000000
1.510070 0.886494 1.327300 1.172951 2.672250 1.772749 84.171722 1.000000
1.512140 0.887227 1.329270 1.168914 2.672381 1.764830 84.181576 1.000000
1.513800 0.887968 1.330290 1.168753 2.674889 1.764728 84.191536 1.000000
1.515720 0.888925 1.331930 1.166904 2.676353 1.761117 84.201673 1.000000
1.517440 0.889655 1.333060 1.168609 2.678229 1.764323 84.211786 1.000000
1.519290 0.890639 1.334660 1.166912 2.678907 1.764133 84.221733 1.000000
1.521330 0.891519 1.336700 1.168195 2.677541 1.759147 84.231639 1.000000
1.523270 0.892831 1.337540 1.171861 2.681903 1.762240 84.241680 1.000000
1.524980 0.893286 1.338800 1.169638 2.681488 1.758380 84.251650 1.000000
1.526770 0.894062 1.340090 1.167996 2.682731 1.760138 84.261678 1.000000
1.528950 0.895261 1.342150 1.164693 2.682601 1.755869 84.271783 1.000000
1.530710 0.896215 1.343590 1.166409 2.682941 1.755366 84.281679 1.000000
1.532450 0.897417 1.345070 1.167294 2.682913 1.753392 84.291625 1.000000
1.534250 0.898019 1.346270 1.168672 2.683093 1.753347 84.301652 1.000000
1.536000 0.898867 1.346970 1.169478 2.683880 1.755307 84.311580 1.000000
1.537790 0.900005 1.348700 1.168013 2.684556 1.751391 84.321573 1.000000
1.539730 0.900935 1.350760 1.165581 2.683559 1.747574 84.331583 1.000000
1.541520 0.902024 1.351890 1.162951 2.684268 1.747669 84.341605 1.000000
1.543160 0.902847 1.353190 1.166883 2.683742 1.749283 84.351682 1.000000
1.544730 0.903934 1.354450 1.165505 2.682102 1.743989 84.365437 1.000000
1.546670 0.904953 1.355650 1.166030 2.683269 1.746648 84.371624 1.000000
1.548500 0.906196 1.356950 1.164544 2.683216 1.744639 84.381770 1.000000
1.550480 0.907341 1.358720 1.162386 2.681503 1.737998 84.391492 1.000000
1.552360 0.908137 1.360610 1.163116 2.677622 1.734226 84.401628 1.000000
1.553450 0.909038 1.360810 1.161247 2.677271 1.736197 84.411690 1.000000
1.555090 0.910137 1.362130 1.160673 2.676404 1.734477 84.421760 1.000000
1.556600 0.911389 1.363430 1.157153 2.676594 1.732583 84.431571 1.000000
1.558330 0.912618 1.364910 1.156507 2.676192 1.734143 84.441688 1.000000
1.559980 0.913983 1.366420 1.155353 2.674321 1.732059 84.451666 1.000000
1.561450 0.915019 1.367820 1.156961 2.672103 1.729662 84.461594 1.000000
1.563050 0.916319 1.369680 1.160155 2.668357 1.724917 84.471840 1.000000
1.564160 0.917771 1.370080 1.160872 2.671647 1.731032 84.481744 1.000000
1.565600 0.918642 1.371730 1.158525 2.667572 1.722411 84.491641 1.000000
1.567240 0.920226 1.372970 1.156878 2.667813 1.720763 84.501757 1.000000
1.568400 0.921740 1.374270 1.157625 2.669254 1.733377 84.511596 1.000000
1.569410 0.922868 1.375630 1.158895 2.667248 1.729227 84.521675 1.000000
1.570760 0.924377 1.377090 1.159352 2.664260 1.725421 84.531584 1.000000
1.571910 0.926061 1.378000 1.159585 2.661287 1.725132 84.541524 1.000000
1.573310 0.927464 1.379710 1.159756 2.659103 1.723559 84.551700 1.000000
1.574330 0.928789 1.380420 1.156890 2.659407 1.725508 84.561672 1.000000
1.575470 0.930545 1.381710 1.155584 2.658165 1.726078 84.571618 1.000000
1.576370 0.932541 1.383300 1.156463 2.657581 1.725886 84.581683 1.000000
1.577560 0.933764 1.384430 1.153572 2.656992 1.728909 84.591694 1.000000
1.578310 0.935401 1.385070 1.155302 2.653921 1.729107 84.601710 1.000000
1.579080 0.937053 1.385950 1.155487 2.652811 1.730186 84.611606 1.000000
1.579990 0.938787 1.387020 1.153440 2.653074 1.731419 84.621539 1.000000
1.581210 0.940673 1.388380 1.149912 2.647289 1.720702 84.631722 1.000000
1.581810 0.942386 1.389540 1.144589 2.648597 1.725341 84.641728 1.000000
1.582430 0.944172 1.389820 1.147130 2.649322 1.736125 84.651661 1.000000
1.583150 0.946056 1.391180 1.142971 2.644754 1.728575 84.661743 1.000000
1.583550 0.948141 1.391190 1.141956 2.647012 1.737015 84.671738 1.000000
1.584640 0.950533 1.393570 1.144514 2.643656 1.732115 84.681501 1.000000
1.584770 0.952362 1.393090 1.142168 2.645282 1.739735 84.691587 1.000000
1.585440 0.954258 1.394060 1.135811 2.642150 1.737427 84.701702 1.000000
1.585890 0.956455 1.394650 1.135274 2.642124 1.739373 84.711749 1.000000
1.586310 0.958618 1.395100 1.133321 2.641479 1.742521 84.721671 1.000000
1.586530 0.960703 1.395930 1.132368 2.639477 1.740606 84.731566 1.000000
1.587060 0.963167 1.396390 1.132038 2.640521 1.751487 84.741593 1.000000
1.587140 0.965470 1.396730 1.130728 2.638976 1.751403 84.751616 1.000000
1.587140 0.968156 1.397420 1.131469 2.639326 1.754004 84.761762 1.000000
1.587810 0.970443 1.397880 1.127849 2.637783 1.755592 84.771743 1.000000
1.588070 0.972979 1.397850 1.126407 2.639205 1.763329 84.781612 1.000000
1.588510 0.975493 1.398450 1.126596 2.638612 1.767446 84.791610 1.000000
1.588600 0.978153 1.398810 1.124851 2.638370 1.764472 84.801686 1.000000
1.589040 0.980822 1.399080 1.125255 2.639203 1.774834 84.811868 1.000000
1.588550 0.983575 1.399710 1.125817 2.640597 1.774326 84.821626 1.000000
1.588990 0.985983 1.399570 1.124697 2.638984 1.782104 84.831617 1.000000
1.589440 0.989251 1.400190 1.126396 2.639326 1.787121 84.841735 1.000000
1.589150 0.991951 1.399820 1.125200 2.639382 1.788641 84.851638 1.000000
1.589590 0.994868 1.400590 1.123307 2.640017 1.788288 84.861612 1.000000
1.589980 0.997951 1.401220 1.120317 2.641369 1.787651 84.871502 1.000000
1.589940 1.001290 1.400810 1.123290 2.643783 1.795773 84.881526 1.000000
1.589780 1.003500 1.401130 1.123675 2.641916 1.794912 84.891601 1.000000
1.590130 1.006740 1.401690 1.122834 2.640726 1.792648 84.901574 1.000000
1.590220 1.009940 1.401640 1.121635 2.642771 1.794420 84.911825 1.000000
1.590210 1.013530 1.401800 1.123067 2.643985 1.796237 84.921626 1.000000
1.590330 1.016360 1.402170 1.122991 2.643399 1.794496 84.931623 1.000000
1.590110 1.019570 1.401760 1.122648 2.647210 1.801235 84.941666 1.000000
1.589790 1.023470 1.401620 1.122697 2.648714 1.802361 84.951635 1.000000
1.590530 1.026420 1.402580 1.126409 2.646858 1.799628 84.961702 1.000000
1.590380 1.029930 1.402030 1.125611 2.651511 1.806354 84.971853 1.000000
1.590540 1.033170 1.402360 1.126509 2.651480 1.801473 84.981646 1.000000
1.590550 1.036800 1.402420 1.126365 2.653522 1.806111 84.991625 1.000000
1.590840 1.040580 1.402710 1.124798 2.654617 1.802894 85.001598 1.000000
1.590660 1.043870 1.402050 1.129695 2.658171 1.809335 85.011614 1.000000
1.590900 1.047710 1.402060 1.129329 2.663174 1.812499 85.021534 1.000000
1.591380 1.051570 1.403000 1.128406 2.662093 1.806836 85.031544 1.000000
1.591130 1.054820 1.402190 1.130897 2.663261 1.809028 85.041628 1.000000
1.591520 1.058460 1.402190 1.129451 2.665443 1.805594 85.051600 1.000000
1.591950 1.062040 1.402550 1.132843 2.667181 1.807483 85.061638 1.000000
1.591970 1.065860 1.402510 1.133349 2.671044 1.807687 85.071675 1.000000
1.592010 1.069380 1.402280 1.135488 2.672689 1.805098 85.081622 1.000000
1.592730 1.073670 1.402200 1.139328 2.673480 1.804717 85.091563 1.000000
1.592590 1.077350 1.402570 1.139713 2.679105 1.806575 85.101735 1.000000
1.592870 1.081060 1.402760 1.139429 2.680186 1.801913 85.111738 1.000000
1.593320 1.084990 1.402760 1.137271 2.680242 1.796247 85.121643 1.000000
1.593390 1.088970 1.402470 1.138625 2.685058 1.795251 85.131598 1.000000
1.593880 1.092820 1.402910 1.140155 2.684379 1.787035 85.141491 1.000000
1.594270 1.096840 1.402850 1.138406 2.689364 1.791957 85.151611 1.000000
1.594010 1.100640 1.401840 1.139630 2.695630 1.795500 85.161817 1.000000
1.594820 1.104780 1.402460 1.145275 2.697383 1.795879 85.171746 1.000000
1.595080 1.109170 1.401810 1.142604 2.705220 1.796224 85.181643 1.000000
1.595790 1.112870 1.402160 1.140542 2.705684 1.788474 85.191568 1.000000
1.596540 1.116690 1.402820 1.143127 2.706873 1.782593 85.201756 1.000000
1.596550 1.120990 1.402030 1.143448 2.714253 1.789439 85.211649 1.000000
1.596860 1.125170 1.401960 1.148050 2.718368 1.792729 85.221581 1.000000
1.597450 1.129230 1.401830 1.145659 2.725245 1.796658 85.231568 1.000000
1.598140 1.133530 1.402550 1.144449 2.726595 1.785280 85.241530 1.000000
1.599300 1.138110 1.403270 1.146939 2.730697 1.775729 85.251719 1.000000
1.599150 1.142450 1.402640 1.147808 2.739008 1.785057 85.261718 1.000000
1.600140 1.146570 1.403680 1.150204 2.743294 1.784924 85.271639 1.000000
1.600310 1.150370 1.403300 1.154946 2.747621 1.788097 85.281613 1.000000
1.601280 1.155050 1.404580 1.154785 2.749679 1.776244 85.291576 1.000000
1.601870 1.158770 1.404990 1.160172 2.751845 1.775519 85.301620 1.000000
1.602950 1.164060 1.405790 1.158283 2.758625 1.769742 85.311587 1.000000
1.603880 1.168180 1.406680 1.161513 2.763423 1.769190 85.321609 1.000000
1.604580 1.171930 1.407140 1.162769 2.767719 1.766305 85.331506 1.000000
1.605120 1.176680 1.407920 1.163864 2.774462 1.766298 85.341735 1.000000
1.605690 1.180670 1.407670 1.168695 2.779050 1.770992 85.351549 1.000000
1.606900 1.185460 1.409050 1.167775 2.784275 1.763782 85.361669 1.000000
1.608250 1.190010 1.410650 1.167022 2.789691 1.759151 85.371535 1.000000
1.608670 1.194150 1.410960 1.172416 2.796849 1.762421 85.381625 1.000000
1.609540 1.198560 1.411890 1.175767 2.799958 1.757644 85.391635 1.000000
1.610570 1.203290 1.413500 1.174580 2.804008 1.750020 85.401774 1.000000
1.611950 1.207420 1.414500 1.175989 2.807303 1.743352 85.411774 1.000000
1.613020 1.212210 1.415470 1.178252 2.815851 1.749177 85.421719 1.000000
1.613980 1.216290 1.416340 1.180654 2.820752 1.748769 85.431693 1.000000
1.614980 1.220620 1.417620 1.181381 2.822156 1.742492 85.441601 1.000000
1.616340 1.225770 1.419410 1.178068 2.829516 1.735439 85.451613 1.000000
1.617660 1.229840 1.420550 1.184726 2.833471 1.737701 85.469491 1.000000
1.619300 1.234190 1.422370 1.187625 2.836589 1.731686 85.471694 1.000000
1.620540 1.238450 1.423780 1.183583 2.841291 1.725558 85.481647 1.000000
1.621910 1.242670 1.425120 1.183516 2.844762 1.723460 85.491696 1.000000
1.622990 1.247620 1.426490 1.187258 2.848762 1.718235 85.501632 1.000000
1.625120 1.251760 1.427770 1.187849 2.852625 1.716157 85.511662 1.000000
1.625980 1.256140 1.428920 1.191054 2.860760 1.725795 85.521588 1.000000
1.627500 1.260870 1.430770 1.193671 2.861454 1.718111 85.531657 1.000000
1.628710 1.264800 1.432420 1.192687 2.865487 1.711631 85.541716 1.000000
1.630460 1.269460 1.434390 1.192736 2.868472 1.706258 85.551646 1.000000
1.632130 1.274000 1.435700 1.194435 2.874475 1.710812 85.561877 1.000000
1.633560 1.278140 1.437190 1.199299 2.877578 1.711512 85.571895 1.000000
1.635480 1.282890 1.439960 1.198190 2.877955 1.696564 85.581667 1.000000
1.637190 1.286970 1.440930 1.197137 2.879521 1.696872 85.591559 1.000000
1.638830 1.290930 1.442470 1.196391 2.883636 1.699458 85.601777 1.000000
1.640730 1.295760 1.444070 1.200559 2.885091 1.696135 85.611692 1.000000
1.643030 1.300280 1.445890 1.200618 2.886209 1.695587 85.621615 1.000000
1.644650 1.304460 1.448570 1.199553 2.886374 1.682758 85.631868 1.000000
1.646160 1.308650 1.449620 1.202117 2.889792 1.685494 85.641609 1.000000
1.648110 1.312600 1.451240 1.200946 2.894342 1.685806 85.651627 1.000000
1.650140 1.317000 1.453440 1.202422 2.891876 1.675908 85.661827 1.000000
1.651170 1.321640 1.454700 1.202474 2.896280 1.675668 85.671662 1.000000
1.653310 1.325780 1.456500 1.203732 2.895888 1.675041 85.681679 1.000000
1.654950 1.330010 1.457820 1.204148 2.899607 1.677128 85.691715 1.000000
1.656980 1.334300 1.459860 1.204883 2.900392 1.672934 85.701741 1.000000
1.658850 1.338690 1.461830 1.202868 2.902434 1.671874 85.711677 1.000000
1.660460 1.342910 1.463430 1.204213 2.903213 1.666733 85.721562 1.000000
1.662560 1.347120 1.464810 1.207107 2.904298 1.671137 85.731749 1.000000
1.664440 1.351160 1.466370 1.206211 2.904085 1.668711 85.741615 1.000000
1.666720 1.355990 1.469060 1.205841 2.906327 1.666435 85.751645 1.000000
1.668090 1.360160 1.470190 1.206233 2.906165 1.666605 85.761767 1.000000
1.669710 1.364220 1.471530 1.207864 2.908033 1.667382 85.771644 1.000000
1.671450 1.368160 1.473120 1.203388 2.909282 1.657065 85.781644 1.000000
1.673600 1.372670 1.475200 1.201826 2.909237 1.656352 85.791742 1.000000
1.675380 1.376620 1.476560 1.203476 2.909900 1.656796 85.801725 1.000000
1.677850 1.380910 1.478570 1.205510 2.908008 1.651776 85.811703 1.000000
1.679180 1.384990 1.479520 1.201401 2.907061 1.649724 85.821588 1.000000
1.680960 1.389590 1.481200 1.199711 2.909662 1.648074 85.831719 1.000000
1.682490 1.393560 1.482370 1.200557 2.914918 1.660720 85.841991 1.000000
1.684330 1.397770 1.483260 1.198728 2.914846 1.655789 85.851686 1.000000
1.685780 1.401920 1.484900 1.197528 2.912064 1.645280 85.861781 1.000000
1.687610 1.406100 1.486390 1.200221 2.912568 1.648318 85.871767 1.000000
1.689200 1.410900 1.487690 1.196341 2.915548 1.645133 85.881582 1.000000
1.690890 1.414870 1.488660 1.197152 2.915534 1.648452 85.891481 1.000000
1.692910 1.418780 1.490100 1.196884 2.913814 1.647348 85.901629 1.000000
1.694340 1.423180 1.491160 1.199967 2.915130 1.650811 85.911834 1.000000
1.696280 1.427720 1.492430 1.197504 2.915767 1.646841 85.921608 1.000000
1.697520 1.432100 1.493650 1.193482 2.917667 1.643468 85.931750 1.000000
1.698640 1.436370 1.494870 1.196716 2.917332 1.640241 85.941694 1.000000
1.700440 1.440890 1.495740 1.196864 2.920120 1.650281 85.951637 1.000000
1.702170 1.445360 1.497480 1.194926 2.918186 1.641043 85.961788 1.000000
1.703620 1.449210 1.498520 1.199444 2.916594 1.646828 85.971614 1.000000
1.705080 1.453450 1.499470 1.198260 2.915720 1.635924 85.981575 1.000000
1.706590 1.458570 1.500670 1.201475 2.916939 1.637430 85.991582 1.000000
1.708210 1.462510 1.501650 1.200715 2.915265 1.634528 86.001705 1.000000
1.709650 1.467030 1.502790 1.200663 2.917134 1.634773 86.011648 1.000000
1.711060 1.471560 1.503780 1.202184 2.914667 1.628055 86.021604 1.000000
1.712460 1.476190 1.505070 1.201746 2.916036 1.625347 86.031638 1.000000
1.713420 1.480460 1.505550 1.205418 2.916453 1.631070 86.041564 1.000000
1.714770 1.485250 1.506630 1.204720 2.916292 1.629262 86.051600 1.000000
1.715770 1.490040 1.507990 1.202099 2.917285 1.622024 86.061677 1.000000
1.716980 1.494020 1.508480 1.204541 2.916772 1.624381 86.071604 1.000000
1.718100 1.498190 1.509250 1.205785 2.914690 1.621367 86.081692 1.000000
1.719740 1.503470 1.510730 1.205101 2.914370 1.618691 86.091693 1.000000
1.720660 1.507350 1.511200 1.207910 2.913079 1.620806 86.101583 1.000000
1.721580 1.512520 1.511640 1.207899 2.915435 1.621138 86.111627 1.000000
1.722660 1.517330 1.512610 1.210152 2.916079 1.621901 86.121607 1.000000
1.723440 1.521880 1.512700 1.208651 2.917427 1.620725 86.131642 1.000000
1.724280 1.526120 1.513460 1.208377 2.913096 1.613618 86.141968 1.000000
1.725570 1.530840 1.514590 1.208056 2.909490 1.606802 86.151623 1.000000
1.726410 1.535490 1.515160 1.208600 2.911121 1.607818 86.161652 1.000000
1.726740 1.539970 1.515150 1.207885 2.910221 1.604938 86.171653 1.000000
1.727620 1.545160 1.516130 1.210073 2.908546 1.600688 86.181566 1.000000
1.728490 1.549670 1.516750 1.206612 2.910430 1.601517 86.191766 1.000000
1.728930 1.554040 1.516570 1.212786 2.909236 1.603183 86.201687 1.000000
1.729160 1.558920 1.516370 1.209083 2.910224 1.607463 86.211692 1.000000
1.729800 1.563540 1.516940 1.205218 2.911831 1.603556 86.221677 1.000000
1.730220 1.569110 1.518100 1.208033 2.911175 1.603620 86.231683 1.000000
1.730400 1.573600 1.517430 1.205926 2.911808 1.605247 86.241658 1.000000
1.730670 1.578070 1.517830 1.205365 2.908956 1.598720 86.251663 1.000000
1.731110 1.583010 1.518740 1.200779 2.907000 1.592460 86.261929 1.000000
1.731810 1.587530 1.519070 1.202482 2.906472 1.595042 86.271650 1.000000
1.730990 1.592630 1.518930 1.204591 2.907192 1.595476 86.281620 1.000000
1.731310 1.596960 1.518030 1.199730 2.908249 1.604218 86.291598 1.000000
1.731110 1.602740 1.518540 1.198655 2.909195 1.600136 86.301676 1.000000
1.731420 1.607540 1.518460 1.197397 2.907830 1.598934 86.311756 1.000000
1.731070 1.612450 1.518780 1.197343 2.907042 1.595257 86.321745 1.000000
1.730610 1.617180 1.518600 1.199370 2.908930 1.599840 86.331681 1.000000
1.730610 1.622070 1.518820 1.197555 2.905578 1.592187 86.341615 1.000000
1.730270 1.627230 1.518780 1.195689 2.906863 1.592630 86.351690 1.000000
1.730030 1.632290 1.518600 1.196260 2.904703 1.596003 86.361674 1.000000
1.729990 1.637690 1.518810 1.193691 2.907031 1.597122 86.372916 1.000000
1.728940 1.642830 1.518170 1.193132 2.905911 1.598451 86.381629 1.000000
1.728210 1.647470 1.517950 1.192473 2.906578 1.601044 86.391620 1.000000
1.727720 1.652740 1.517780 1.191920 2.907003 1.597344 86.401641 1.000000
1.727100 1.658070 1.517790 1.190075 2.908477 1.599354 86.411618 1.000000
1.725920 1.663470 1.517530 1.194653 2.913495 1.606166 86.421490 1.000000
1.725610 1.668840 1.517880 1.189151 2.907424 1.599989 86.431627 1.000000
1.724910 1.673880 1.517660 1.190066 2.908680 1.605654 86.441504 1.000000
1.723670 1.679240 1.516690 1.191960 2.909834 1.607628 86.451623 1.000000
1.722810 1.684900 1.516400 1.191037 2.911479 1.609365 86.461746 1.000000
1.721620 1.689860 1.516140 1.191559 2.911583 1.612977 86.471663 1.000000
1.720650 1.696030 1.516020 1.191905 2.911764 1.618801 86.481563 1.000000
1.719620 1.701180 1.515280 1.188807 2.911894 1.616425 86.491646 1.000000
1.718700 1.706750 1.514980 1.187097 2.911850 1.616527 86.501877 1.000000
1.717480 1.712340 1.515040 1.186990 2.912470 1.617225 86.511564 1.000000
1.715940 1.717470 1.514070 1.187174 2.912993 1.625142 86.521595 1.000000
1.714690 1.723450 1.513660 1.185670 2.915620 1.629945 86.531733 1.000000
1.713880 1.728900 1.513830 1.184040 2.912450 1.624646 86.541678 1.000000
1.711930 1.734430 1.512680 1.184345 2.918268 1.632507 86.551785 1.000000
1.710590 1.740030 1.512660 1.183216 2.916306 1.629297 86.561734 1.000000
1.709260 1.745850 1.512330 1.181948 2.915897 1.628541 86.571661 1.000000
1.707600 1.751730 1.510870 1.182196 2.920271 1.641737 86.581687 1.000000
1.706360 1.757760 1.511350 1.182145 2.917996 1.632727 86.591740 1.000000
1.704860 1.763460 1.511190 1.183377 2.915677 1.633044 86.601674 1.000000
1.703200 1.769540 1.510250 1.183125 2.920045 1.642551 86.611608 1.000000
1.701620 1.775010 1.509600 1.179463 2.918739 1.639829 86.621655 1.000000
1.700180 1.781270 1.509490 1.178793 2.919922 1.636938 86.631659 1.000000
1.698680 1.787400 1.509530 1.177844 2.919480 1.636100 86.641575 1.000000
1.697230 1.793310 1.508920 1.176767 2.922522 1.640849 86.651640 1.000000
1.695490 1.799720 1.509030 1.177538 2.922573 1.636350 86.661802 1.000000
1.694110 1.805700 1.508300 1.177570 2.920299 1.635706 86.671673 1.000000
1.692550 1.811760 1.508290 1.175115 2.919694 1.629506 86.681846 1.000000
1.690940 1.817960 1.507830 1.175843 2.918898 1.630269 86.691835 1.000000
1.689100 1.824680 1.507390 1.177371 2.922908 1.634626 86.701697 1.000000
1.687210 1.830750 1.506970 1.177491 2.922389 1.629885 86.711586 1.000000
1.685930 1.837530 1.507200 1.176278 2.922246 1.625169 86.721681 1.000000
1.683540 1.843510 1.506380 1.180674 2.924672 1.627991 86.731797 1.000000
1.681700 1.850000 1.506330 1.178787 2.924367 1.623329 86.741622 1.000000
1.679830 1.855970 1.505630 1.182066 2.924374 1.622199 86.751704 1.000000
1.678150 1.862960 1.505170 1.180053 2.928522 1.623172 86.761695 1.000000
1.676060 1.869640 1.505510 1.183804 2.925941 1.616807 86.771608 1.000000
1.674110 1.876110 1.505030 1.184507 2.927942 1.617425 86.781651 1.000000
1.672000 1.883040 1.505080 1.187496 2.929657 1.613200 86.791997 1.000000
1.670210 1.889470 1.504410 1.190124 2.932423 1.613937 86.801738 1.000000
1.667880 1.896320 1.505160 1.191697 2.930921 1.602262 86.811813 1.000000
1.665670 1.902790 1.503780 1.192290 2.933695 1.605832 86.821817 1.000000
1.663110 1.910150 1.502860 1.189075 2.939578 1.606874 86.831636 1.000000
1.660640 1.916630 1.502240 1.192178 2.940753 1.605536 86.841715 1.000000
1.658590 1.923790 1.502310 1.194167 2.943844 1.604130 86.851847 1.000000
1.656180 1.930470 1.502350 1.199151 2.940849 1.595479 86.861806 1.000000
1.653930 1.937140 1.501460 1.199395 2.943891 1.599731 86.871663 1.000000
1.651210 1.944530 1.500910 1.201370 2.945911 1.595350 86.881727 1.000000
1.648980 1.951350 1.500170 1.201587 2.952030 1.601779 86.891684 1.000000
1.646660 1.958370 1.500400 1.202538 2.950408 1.594163 86.901638 1.000000
1.643860 1.965410 1.499660 1.204984 2.952849 1.593529 86.911630 1.000000
1.641010 1.972640 1.499410 1.208297 2.954358 1.592376 86.921572 1.000000
1.638210 1.979470 1.498260 1.211312 2.957426 1.592718 86.931592 1.000000
1.635530 1.986530 1.497940 1.211312 2.958712 1.591336 86.941576 1.000000
1.632810 1.993680 1.497470 1.211196 2.963074 1.592348 86.951751 1.000000
1.629970 2.000410 1.497040 1.215873 2.965708 1.591632 86.961710 1.000000
1.627090 2.007930 1.496660 1.216244 2.966788 1.589117 86.971582 1.000000
1.624300 2.014560 1.496040 1.219157 2.968745 1.593053 86.981654 1.000000
1.621550 2.022000 1.496050 1.221254 2.972599 1.590720 86.991646 1.000000
1.618130 2.029240 1.495060 1.222235 2.979052 1.595265 87.001594 1.000000
1.615430 2.035710 1.494420 1.224715 2.979161 1.598507 87.011698 1.000000
1.612030 2.043500 1.494120 1.226222 2.987109 1.602790 87.021691 1.000000
1.608750 2.050630 1.493080 1.228039 2.989667 1.605226 87.031560 1.000000
1.606030 2.057510 1.493020 1.228743 2.991074 1.605656 87.041593 1.000000
1.602100 2.064320 1.492270 1.231606 2.994646 1.602750 87.051687 1.000000
1.599170 2.071530 1.491790 1.236053 3.000065 1.611972 87.061779 1.000000
1.596080 2.078200 1.491300 1.235573 2.999844 1.608138 87.071522 1.000000
1.592880 2.085490 1.491090 1.240365 3.001962 1.607763 87.081496 1.000000
1.589700 2.092700 1.491000 1.237836 3.004952 1.606034 87.091533 1.000000
1.586290 2.099490 1.489880 1.240945 3.009735 1.613794 87.101575 1.000000
1.583120 2.106690 1.489420 1.244104 3.011040 1.615359 87.111502 1.000000
1.579660 2.113200 1.488820 1.245888 3.015763 1.616025 87.121489 1.000000
1.576550 2.120060 1.487570 1.244189 3.016607 1.617363 87.131570 1.000000
1.573420 2.127000 1.487410 1.246285 3.018713 1.616422 87.141543 1.000000
1.569860 2.134050 1.486920 1.248299 3.024341 1.620575 87.151709 1.000000
1.566580 2.140820 1.486200 1.248869 3.026692 1.619777 87.161645 1.000000
1.563370 2.147100 1.485740 1.249887 3.027458 1.619075 87.171628 1.000000
1.559750 2.154130 1.484300 1.252231 3.032365 1.623884 87.181511 1.000000
1.556510 2.161120 1.484070 1.252087 3.033503 1.622454 87.191705 1.000000
1.553240 2.167400 1.483610 1.256136 3.035098 1.621795 87.201615 1.000000
1.550270 2.174110 1.482980 1.254796 3.034691 1.617845 87.211588 1.000000
1.546990 2.181130 1.483000 1.258528 3.036733 1.618885 87.221566 1.000000
1.544010 2.187080 1.481450 1.256221 3.039568 1.619729 87.231544 1.000000
1.540880 2.193360 1.481600 1.260724 3.039926 1.616986 87.241511 1.000000
1.537490 2.200320 1.480310 1.261016 3.042815 1.618421 87.251596 1.000000
1.534170 2.206660 1.479080 1.258208 3.045322 1.621008 87.261768 1.000000
1.530950 2.212860 1.478870 1.258425 3.045011 1.611295 87.271548 1.000000
1.527930 2.219170 1.478020 1.263137 3.045532 1.618718 87.281566 1.000000
1.524610 2.225180 1.477240 1.261175 3.047206 1.614216 87.291470 1.000000
1.521570 2.231740 1.475960 1.260765 3.048872 1.615289 87.301570 1.000000
1.518230 2.237850 1.474850 1.257958 3.052325 1.621537 87.311641 1.000000
1.515000 2.243770 1.473920 1.261052 3.054989 1.623368 87.321488 1.000000
1.511930 2.249880 1.472680 1.259682 3.057104 1.627137 87.331585 1.000000
1.508810 2.256060 1.471420 1.258186 3.057871 1.624546 87.341646 1.000000
1.505620 2.261730 1.470930 1.255649 3.057880 1.617702 87.351713 1.000000
1.502830 2.267810 1.469760 1.254917 3.059756 1.620333 87.361746 1.000000
1.499770 2.273680 1.469070 1.256365 3.060272 1.621204 87.371535 1.000000
1.496790 2.279510 1.467930 1.257175 3.060852 1.623099 87.381472 1.000000
1.493940 2.285590 1.467400 1.256308 3.061940 1.618969 87.391510 1.000000
1.490830 2.290890 1.465730 1.254728 3.064340 1.622366 87.401511 1.000000
1.487280 2.297090 1.464520 1.255509 3.065996 1.624054 87.411669 1.000000
1.484640 2.302210 1.463890 1.253117 3.067450 1.622288 87.421532 1.000000
1.481800 2.308200 1.463200 1.253979 3.064892 1.614855 87.431601 1.000000
1.478980 2.313320 1.462240 1.254654 3.064899 1.614890 87.441626 1.000000
1.476130 2.319530 1.461360 1.254301 3.067241 1.616830 87.451604 1.000000
1.473190 2.324670 1.460340 1.258025 3.068411 1.617744 87.461653 1.000000
1.470290 2.330040 1.459170 1.255114 3.067251 1.614099 87.476143 1.000000
1.467040 2.335250 1.458090 1.258568 3.071058 1.621847 87.481632 1.000000
1.464630 2.341030 1.457430 1.255759 3.069516 1.616689 87.491615 1.000000
1.461600 2.346310 1.456440 1.261373 3.070466 1.623277 87.501695 1.000000
1.459160 2.351360 1.455750 1.259734 3.068707 1.613584 87.511702 1.000000
1.456090 2.356800 1.454510 1.261601 3.071766 1.620778 87.521619 1.000000
1.453670 2.362150 1.453840 1.263003 3.071204 1.620662 87.531611 1.000000
1.450110 2.366790 1.452120 1.264190 3.074181 1.626219 87.541573 1.000000
1.448110 2.372020 1.452150 1.262439 3.072600 1.619628 87.551693 1.000000
1.445080 2.377410 1.451120 1.260706 3.072548 1.615047 87.561673 1.000000
1.442240 2.382370 1.450070 1.263797 3.070696 1.613474 87.571708 1.000000
1.440120 2.387110 1.449800 1.265183 3.068035 1.606896 87.581652 1.000000
1.436990 2.392080 1.447790 1.265827 3.072586 1.617713 87.591559 1.000000
1.434050 2.396900 1.447070 1.263693 3.071733 1.612630 87.601659 1.000000
1.431160 2.401690 1.445940 1.263682 3.070914 1.611774 87.611575 1.000000
1.428830 2.406190 1.445410 1.266592 3.067629 1.609379 87.621650 1.000000
1.426280 2.411180 1.444330 1.266833 3.067430 1.607380 87.631563 1.000000
1.423640 2.415610 1.443340 1.262808 3.066755 1.606820 87.641504 1.000000
1.421000 2.420450 1.442890 1.264026 3.067432 1.603044 87.651560 1.000000
1.418100 2.425230 1.441760 1.263054 3.069935 1.607964 87.661700 1.000000
1.415290 2.429390 1.441020 1.263656 3.065646 1.597628 87.671630 1.000000
1.412890 2.433720 1.439890 1.264370 3.064563 1.605139 87.681583 1.000000
1.409980 2.438250 1.438750 1.262663 3.065902 1.603276 87.691519 1.000000
1.407490 2.442630 1.438740 1.261606 3.061499 1.594695 87.701529 1.000000
1.404650 2.446860 1.437160 1.262878 3.062479 1.596516 87.711488 1.000000
1.401860 2.451000 1.436630 1.262506 3.059218 1.590788 87.721456 1.000000
1.399120 2.455540 1.435820 1.263489 3.061563 1.592349 87.731564 1.000000
1.396510 2.459520 1.435280 1.262967 3.064503 1.599757 87.741592 1.000000
1.394020 2.463730 1.434240 1.263514 3.058274 1.590788 87.751545 1.000000
1.391290 2.467740 1.434360 1.266402 3.057317 1.590466 87.761502 1.000000
1.387980 2.472230 1.433470 1.266061 3.057790 1.586473 87.771476 1.000000
1.384840 2.476070 1.432360 1.261190 3.055747 1.580950 87.781496 1.000000
1.382430 2.479950 1.432160 1.261938 3.054416 1.576652 87.791471 1.000000
1.379860 2.483790 1.432330 1.265027 3.050969 1.575479 87.801517 1.000000
1.376690 2.486790 1.430880 1.265782 3.049858 1.579544 87.811575 1.000000
1.373450 2.491540 1.430280 1.264766 3.052916 1.581715 87.821554 1.000000
1.370400 2.495320 1.430660 1.264041 3.052646 1.577214 87.831634 1.000000
1.368030 2.499000 1.429910 1.263436 3.048471 1.574283 87.841537 1.000000
1.364690 2.502670 1.429880 1.266684 3.049512 1.578539 87.851541 1.000000
1.361610 2.505950 1.429530 1.267001 3.047663 1.573048 87.861685 1.000000
1.358200 2.509550 1.428630 1.266647 3.049345 1.578557 87.871639 1.000000
1.355170 2.513070 1.428660 1.267653 3.047683 1.574420 87.881578 1.000000
1.351860 2.516310 1.428100 1.267029 3.047891 1.579233 87.891670 1.000000
1.348550 2.520210 1.428640 1.268119 3.045446 1.573021 87.901689 1.000000
1.344930 2.524040 1.428270 1.267860 3.048523 1.572924 87.911607 1.000000
1.341830 2.526860 1.428340 1.270078 3.050404 1.584660 87.921521 1.000000
1.338480 2.530140 1.427760 1.267784 3.048604 1.579050 87.931475 1.000000
1.335330 2.533450 1.427890 1.267062 3.047369 1.577390 87.941607 1.000000
1.331770 2.536800 1.427730 1.267149 3.046533 1.582171 87.951683 1.000000
1.328660 2.539730 1.428270 1.268468 3.043756 1.576065 87.961685 1.000000
1.325040 2.542810 1.427920 1.268234 3.045363 1.579100 87.971807 1.000000
